ply
format ascii 1.0
comment VCGLIB generated
element vertex 1356
property float x
property float y
property float z
property float nx
property float ny
property float nz
element face 0
property list uchar int vertex_indices
end_header
3.496026 2.363874 0.4560949 0 0 0 
3.496026 2.363874 0.4244205 0 0 0 
3.496026 2.363874 0.3927935 0 0 0 
3.496026 2.363874 0.3612101 0 0 0 
3.496026 2.363874 0.3296669 0 0 0 
3.496026 2.363874 0.2981601 0 0 0 
3.496026 2.363874 0.2666865 0 0 0 
3.496026 2.363874 0.2352423 0 0 0 
3.496026 2.363874 0.2038242 0 0 0 
3.496026 2.363874 0.1724286 0 0 0 
3.496026 2.363874 0.1410521 0 0 0 
3.496026 2.363874 0.1096911 0 0 0 
3.496026 2.363874 0.07834218 0 0 0 
3.496026 2.363874 0.04700194 0 0 0 
3.496026 2.363874 0.01566689 0 0 0 
3.496026 2.363874 -0.01566645 0 0 0 
3.496026 2.363874 -0.04700151 0 0 0 
3.496026 2.363875 -0.07834175 0 0 0 
3.496026 2.363875 -0.1096906 0 0 0 
3.496026 2.363875 -0.1410516 0 0 0 
3.496026 2.363875 -0.1724282 0 0 0 
3.496026 2.363875 -0.2038238 0 0 0 
3.496026 2.363875 -0.2352419 0 0 0 
3.496026 2.363875 -0.266686 0 0 0 
3.496026 2.363875 -0.2981597 0 0 0 
3.496026 2.363875 -0.3296664 0 0 0 
3.496026 2.363875 -0.3612096 0 0 0 
3.496026 2.363875 -0.392793 0 0 0 
3.496026 2.363875 -0.4244201 0 0 0 
3.496026 2.363875 -0.4560944 0 0 0 
3.496026 2.363875 -0.4878196 0 0 0 
3.496026 2.363875 -0.5195994 0 0 0 
3.496026 2.363875 -0.5514372 0 0 0 
3.496026 2.363875 -0.5833369 0 0 0 
3.496026 2.363875 -0.6153021 0 0 0 
3.496026 2.363875 -0.6473367 0 0 0 
3.496026 2.363875 -0.6794443 0 0 0 
3.496026 2.363875 -0.7116287 0 0 0 
3.496026 2.363875 -0.7438937 0 0 0 
3.496026 2.363875 -0.7762434 0 0 0 
3.496026 2.363875 -0.8086816 0 0 0 
3.496026 2.363875 -0.8412122 0 0 0 
3.496026 2.363875 -0.8738392 0 0 0 
3.496026 2.363875 -0.9065667 0 0 0 
3.496026 2.363875 -0.9393988 0 0 0 
3.496026 2.363875 -0.9723395 0 0 0 
3.5001 2.358626 1.005498 0 0 0 
3.5001 2.358626 0.9724413 0 0 0 
3.5001 2.358626 0.9394971 0 0 0 
3.5001 2.358626 0.9066616 0 0 0 
3.5001 2.358626 0.8739306 0 0 0 
3.5001 2.358626 0.8413002 0 0 0 
3.5001 2.358626 0.8087662 0 0 0 
3.5001 2.358626 0.7763247 0 0 0 
3.5001 2.358626 0.7439717 0 0 0 
3.5001 2.358626 0.7117032 0 0 0 
3.5001 2.358626 0.6795154 0 0 0 
3.5001 2.358626 0.6474045 0 0 0 
3.5001 2.358626 0.6153666 0 0 0 
3.5001 2.358626 0.5833981 0 0 0 
3.5001 2.358626 0.5514951 0 0 0 
3.5001 2.358626 0.5196539 0 0 0 
3.5001 2.358626 0.4878709 0 0 0 
3.5001 2.358626 0.4561424 0 0 0 
3.5001 2.358626 0.4244648 0 0 0 
3.5001 2.358626 0.3928344 0 0 0 
3.5001 2.358626 0.3612477 0 0 0 
3.5001 2.358626 0.3297012 0 0 0 
3.5001 2.358626 0.2981912 0 0 0 
3.5001 2.358626 0.2667143 0 0 0 
3.5001 2.358626 0.2352668 0 0 0 
3.5001 2.358626 0.2038454 0 0 0 
3.5001 2.358626 0.1724466 0 0 0 
3.5001 2.358626 0.1410668 0 0 0 
3.5001 2.358626 0.1097025 0 0 0 
3.5001 2.358626 0.07835036 0 0 0 
3.5001 2.358626 0.04700684 0 0 0 
3.5001 2.358626 0.01566852 0 0 0 
3.5001 2.358626 -0.01566808 0 0 0 
3.5001 2.358626 -0.04700641 0 0 0 
3.5001 2.358626 -0.07834993 0 0 0 
3.5001 2.358626 -0.1097021 0 0 0 
3.5001 2.358626 -0.1410663 0 0 0 
3.5001 2.358626 -0.1724462 0 0 0 
3.5001 2.358626 -0.203845 0 0 0 
3.5001 2.358626 -0.2352664 0 0 0 
3.5001 2.358626 -0.2667138 0 0 0 
3.5001 2.358626 -0.2981907 0 0 0 
3.5001 2.358626 -0.3297007 0 0 0 
3.5001 2.358626 -0.3612473 0 0 0 
3.5001 2.358626 -0.3928339 0 0 0 
3.5001 2.358626 -0.4244643 0 0 0 
3.5001 2.358626 -0.4561419 0 0 0 
3.5001 2.358626 -0.4878705 0 0 0 
3.5001 2.358626 -0.5196536 0 0 0 
3.5001 2.358626 -0.5514947 0 0 0 
3.5001 2.358626 -0.5833977 0 0 0 
3.5001 2.358626 -0.6153663 0 0 0 
3.5001 2.358626 -0.6474041 0 0 0 
3.5001 2.358626 -0.6795151 0 0 0 
3.5001 2.358626 -0.7117028 0 0 0 
3.5001 2.358626 -0.7439713 0 0 0 
3.5001 2.358626 -0.7763244 0 0 0 
3.5001 2.358626 -0.8087659 0 0 0 
3.5001 2.358626 -0.8412999 0 0 0 
3.5001 2.358626 -0.8739303 0 0 0 
3.5001 2.358626 -0.9066612 0 0 0 
3.5001 2.358626 -0.9394967 0 0 0 
3.5001 2.358626 -0.9724409 0 0 0 
3.50828 2.356134 1.006784 0 0 0 
3.50828 2.356134 0.9736845 0 0 0 
3.50828 2.356134 0.9406982 0 0 0 
3.50828 2.356134 0.9078208 0 0 0 
3.50828 2.356134 0.875048 0 0 0 
3.50828 2.356134 0.8423759 0 0 0 
3.50828 2.356134 0.8098003 0 0 0 
3.50828 2.356134 0.7773173 0 0 0 
3.50828 2.356134 0.7449229 0 0 0 
3.50828 2.356134 0.7126131 0 0 0 
3.50828 2.356134 0.6803842 0 0 0 
3.50828 2.356134 0.6482322 0 0 0 
3.50828 2.356134 0.6161534 0 0 0 
3.50828 2.356134 0.584144 0 0 0 
3.50828 2.356134 0.5522001 0 0 0 
3.50828 2.356134 0.5203183 0 0 0 
3.50828 2.356134 0.4884947 0 0 0 
3.50828 2.356134 0.4567256 0 0 0 
3.50828 2.356134 0.4250075 0 0 0 
3.50828 2.356134 0.3933367 0 0 0 
3.50828 2.356134 0.3617096 0 0 0 
3.50828 2.356134 0.3301227 0 0 0 
3.50828 2.356134 0.2985725 0 0 0 
3.50828 2.356134 0.2670553 0 0 0 
3.50828 2.356134 0.2355676 0 0 0 
3.50828 2.356134 0.2041061 0 0 0 
3.50828 2.356134 0.1726671 0 0 0 
3.50828 2.356134 0.1412471 0 0 0 
3.50828 2.356134 0.1098428 0 0 0 
3.50828 2.356134 0.07845052 0 0 0 
3.50828 2.356134 0.04706694 0 0 0 
3.50828 2.356134 0.01568855 0 0 0 
3.50828 2.356134 -0.01568812 0 0 0 
3.50828 2.356134 -0.04706651 0 0 0 
3.50828 2.356134 -0.07845009 0 0 0 
3.50828 2.356134 -0.1098423 0 0 0 
3.50828 2.356134 -0.1412467 0 0 0 
3.50828 2.356134 -0.1726666 0 0 0 
3.50828 2.356134 -0.2041056 0 0 0 
3.50828 2.356134 -0.2355672 0 0 0 
3.50828 2.356134 -0.2670548 0 0 0 
3.50828 2.356134 -0.298572 0 0 0 
3.50828 2.356134 -0.3301223 0 0 0 
3.50828 2.356134 -0.3617091 0 0 0 
3.50828 2.356134 -0.3933362 0 0 0 
3.50828 2.356134 -0.425007 0 0 0 
3.50828 2.356134 -0.4567251 0 0 0 
3.50828 2.356134 -0.4884942 0 0 0 
3.50828 2.356134 -0.5203179 0 0 0 
3.50828 2.356134 -0.5521998 0 0 0 
3.50828 2.356134 -0.5841436 0 0 0 
3.50828 2.356134 -0.6161531 0 0 0 
3.50828 2.356134 -0.6482319 0 0 0 
3.50828 2.356134 -0.6803839 0 0 0 
3.50828 2.356134 -0.7126127 0 0 0 
3.50828 2.356134 -0.7449225 0 0 0 
3.50828 2.356134 -0.7773169 0 0 0 
3.50828 2.356134 -0.8097999 0 0 0 
3.50828 2.356134 -0.8423755 0 0 0 
3.50828 2.356134 -0.8750476 0 0 0 
3.50828 2.356134 -0.9078204 0 0 0 
3.50828 2.356134 -0.9406978 0 0 0 
3.50828 2.356134 -0.9736841 0 0 0 
3.512386 2.350894 1.006901 0 0 0 
3.512386 2.350894 0.973798 0 0 0 
3.512386 2.350894 0.9408079 0 0 0 
3.512386 2.350894 0.9079266 0 0 0 
3.512386 2.350894 0.87515 0 0 0 
3.512386 2.350894 0.842474 0 0 0 
3.512386 2.350894 0.8098947 0 0 0 
3.512386 2.350894 0.7774079 0 0 0 
3.512386 2.350894 0.7450097 0 0 0 
3.512386 2.350894 0.7126962 0 0 0 
3.512386 2.350894 0.6804635 0 0 0 
3.512386 2.350894 0.6483078 0 0 0 
3.512386 2.350894 0.6162252 0 0 0 
3.512386 2.350894 0.5842121 0 0 0 
3.512386 2.350894 0.5522645 0 0 0 
3.512386 2.350894 0.5203789 0 0 0 
3.512386 2.350894 0.4885516 0 0 0 
3.512386 2.350894 0.4567789 0 0 0 
3.512386 2.350894 0.425057 0 0 0 
3.512386 2.350894 0.3933825 0 0 0 
3.512386 2.350894 0.3617518 0 0 0 
3.512386 2.350894 0.3301612 0 0 0 
3.512386 2.350894 0.2986073 0 0 0 
3.512386 2.350894 0.2670864 0 0 0 
3.512386 2.350894 0.2355951 0 0 0 
3.512386 2.350894 0.2041299 0 0 0 
3.512386 2.350894 0.1726872 0 0 0 
3.512386 2.350894 0.1412636 0 0 0 
3.512386 2.350894 0.1098556 0 0 0 
3.512386 2.350894 0.07845967 0 0 0 
3.512386 2.350894 0.04707243 0 0 0 
3.512386 2.350894 0.01569038 0 0 0 
3.512386 2.350894 -0.01568995 0 0 0 
3.512386 2.350894 -0.047072 0 0 0 
3.512386 2.350894 -0.07845924 0 0 0 
3.512386 2.350894 -0.1098551 0 0 0 
3.512386 2.350894 -0.1412632 0 0 0 
3.512386 2.350894 -0.1726868 0 0 0 
3.512386 2.350894 -0.2041294 0 0 0 
3.512386 2.350894 -0.2355947 0 0 0 
3.512386 2.350894 -0.2670859 0 0 0 
3.512386 2.350894 -0.2986068 0 0 0 
3.512386 2.350894 -0.3301607 0 0 0 
3.512386 2.350894 -0.3617513 0 0 0 
3.512386 2.350894 -0.393382 0 0 0 
3.512386 2.350894 -0.4250565 0 0 0 
3.512386 2.350894 -0.4567784 0 0 0 
3.512386 2.350894 -0.4885511 0 0 0 
3.512386 2.350894 -0.5203786 0 0 0 
3.512386 2.350894 -0.5522642 0 0 0 
3.512386 2.350894 -0.5842117 0 0 0 
3.512386 2.350894 -0.6162249 0 0 0 
3.512386 2.350894 -0.6483074 0 0 0 
3.512386 2.350894 -0.6804631 0 0 0 
3.512386 2.350894 -0.7126958 0 0 0 
3.512386 2.350894 -0.7450094 0 0 0 
3.512386 2.350894 -0.7774075 0 0 0 
3.512386 2.350894 -0.8098943 0 0 0 
3.512386 2.350894 -0.8424737 0 0 0 
3.512386 2.350894 -0.8751497 0 0 0 
3.512386 2.350894 -0.9079262 0 0 0 
3.512386 2.350894 -0.9408075 0 0 0 
3.512386 2.350894 -0.9737977 0 0 0 
3.516498 2.345656 1.007023 0 0 0 
3.516498 2.345656 0.9739153 0 0 0 
3.516498 2.345656 0.9409212 0 0 0 
3.516498 2.345656 0.908036 0 0 0 
3.516498 2.345656 0.8752555 0 0 0 
3.516498 2.345656 0.8425756 0 0 0 
3.516498 2.345656 0.8099923 0 0 0 
3.516498 2.345656 0.7775016 0 0 0 
3.516498 2.345656 0.7450995 0 0 0 
3.516498 2.345656 0.7127821 0 0 0 
3.516498 2.345656 0.6805455 0 0 0 
3.516498 2.345656 0.6483859 0 0 0 
3.516498 2.345656 0.6162995 0 0 0 
3.516498 2.345656 0.5842825 0 0 0 
3.516498 2.345656 0.5523311 0 0 0 
3.516498 2.345656 0.5204417 0 0 0 
3.516498 2.345656 0.4886105 0 0 0 
3.516498 2.345656 0.4568339 0 0 0 
3.516498 2.345656 0.4251083 0 0 0 
3.516498 2.345656 0.3934299 0 0 0 
3.516498 2.345656 0.3617954 0 0 0 
3.516498 2.345656 0.330201 0 0 0 
3.516498 2.345656 0.2986433 0 0 0 
3.516498 2.345656 0.2671186 0 0 0 
3.516498 2.345656 0.2356235 0 0 0 
3.516498 2.345656 0.2041545 0 0 0 
3.516498 2.345656 0.172708 0 0 0 
3.516498 2.345656 0.1412806 0 0 0 
3.516498 2.345656 0.1098688 0 0 0 
3.516498 2.345656 0.07846912 0 0 0 
3.516498 2.345656 0.0470781 0 0 0 
3.516498 2.345656 0.01569226 0 0 0 
3.516498 2.345656 -0.01569184 0 0 0 
3.516498 2.345656 -0.04707767 0 0 0 
3.516498 2.345657 -0.0784687 0 0 0 
3.516498 2.345657 -0.1098684 0 0 0 
3.516498 2.345657 -0.1412802 0 0 0 
3.516498 2.345657 -0.1727076 0 0 0 
3.516498 2.345657 -0.204154 0 0 0 
3.516498 2.345657 -0.2356231 0 0 0 
3.516498 2.345657 -0.2671181 0 0 0 
3.516498 2.345657 -0.2986428 0 0 0 
3.516498 2.345657 -0.3302005 0 0 0 
3.516498 2.345657 -0.3617949 0 0 0 
3.516498 2.345657 -0.3934295 0 0 0 
3.516498 2.345657 -0.4251078 0 0 0 
3.516498 2.345657 -0.4568334 0 0 0 
3.516498 2.345657 -0.48861 0 0 0 
3.516498 2.345657 -0.5204413 0 0 0 
3.516498 2.345657 -0.5523307 0 0 0 
3.516498 2.345657 -0.5842821 0 0 0 
3.516498 2.345657 -0.6162992 0 0 0 
3.516498 2.345657 -0.6483856 0 0 0 
3.516498 2.345657 -0.6805452 0 0 0 
3.516498 2.345657 -0.7127817 0 0 0 
3.516498 2.345657 -0.7450991 0 0 0 
3.516498 2.345657 -0.7775012 0 0 0 
3.516498 2.345657 -0.8099919 0 0 0 
3.516498 2.345657 -0.8425752 0 0 0 
3.516498 2.345657 -0.8752551 0 0 0 
3.516498 2.345657 -0.9080356 0 0 0 
3.516498 2.345657 -0.9409209 0 0 0 
3.516498 2.345657 -0.973915 0 0 0 
3.520624 2.340426 1.00715 0 0 0 
3.520624 2.340426 0.9740385 0 0 0 
3.520624 2.340426 0.9410403 0 0 0 
3.520624 2.340426 0.9081509 0 0 0 
3.520624 2.340426 0.8753662 0 0 0 
3.520624 2.340426 0.8426822 0 0 0 
3.520624 2.340426 0.8100947 0 0 0 
3.520624 2.340426 0.7775999 0 0 0 
3.520624 2.340426 0.7451937 0 0 0 
3.520624 2.340426 0.7128723 0 0 0 
3.520624 2.340426 0.6806316 0 0 0 
3.520624 2.340426 0.648468 0 0 0 
3.520624 2.340426 0.6163775 0 0 0 
3.520624 2.340426 0.5843564 0 0 0 
3.520624 2.340426 0.5524009 0 0 0 
3.520624 2.340426 0.5205075 0 0 0 
3.520624 2.340426 0.4886723 0 0 0 
3.520624 2.340426 0.4568917 0 0 0 
3.520624 2.340426 0.425162 0 0 0 
3.520624 2.340426 0.3934797 0 0 0 
3.520624 2.340426 0.3618411 0 0 0 
3.520624 2.340426 0.3302428 0 0 0 
3.520624 2.340426 0.2986811 0 0 0 
3.520624 2.340426 0.2671524 0 0 0 
3.520624 2.340426 0.2356533 0 0 0 
3.520624 2.340426 0.2041803 0 0 0 
3.520624 2.340426 0.1727298 0 0 0 
3.520624 2.340426 0.1412985 0 0 0 
3.520624 2.340426 0.1098827 0 0 0 
3.520624 2.340426 0.07847904 0 0 0 
3.520624 2.340426 0.04708405 0 0 0 
3.520624 2.340426 0.01569425 0 0 0 
3.520624 2.340426 -0.01569382 0 0 0 
3.520624 2.340426 -0.04708363 0 0 0 
3.520624 2.340426 -0.07847863 0 0 0 
3.520624 2.340426 -0.1098823 0 0 0 
3.520624 2.340426 -0.1412981 0 0 0 
3.520624 2.340426 -0.1727294 0 0 0 
3.520624 2.340426 -0.2041799 0 0 0 
3.520624 2.340426 -0.2356529 0 0 0 
3.520624 2.340426 -0.2671519 0 0 0 
3.520624 2.340426 -0.2986806 0 0 0 
3.520624 2.340426 -0.3302423 0 0 0 
3.520624 2.340426 -0.3618407 0 0 0 
3.520624 2.340426 -0.3934792 0 0 0 
3.520624 2.340426 -0.4251615 0 0 0 
3.520624 2.340426 -0.4568912 0 0 0 
3.520624 2.340426 -0.4886718 0 0 0 
3.520624 2.340426 -0.5205071 0 0 0 
3.520624 2.340426 -0.5524006 0 0 0 
3.520624 2.340426 -0.584356 0 0 0 
3.520624 2.340426 -0.6163771 0 0 0 
3.520624 2.340426 -0.6484676 0 0 0 
3.520624 2.340426 -0.6806312 0 0 0 
3.520624 2.340426 -0.7128719 0 0 0 
3.520624 2.340426 -0.7451934 0 0 0 
3.520624 2.340426 -0.7775996 0 0 0 
3.520624 2.340426 -0.8100944 0 0 0 
3.520624 2.340426 -0.8426818 0 0 0 
3.520624 2.340426 -0.8753658 0 0 0 
3.520624 2.340426 -0.9081505 0 0 0 
3.520624 2.340426 -0.9410399 0 0 0 
3.520624 2.340426 -0.9740382 0 0 0 
3.524755 2.335197 1.007281 0 0 0 
3.524755 2.335197 0.9741655 0 0 0 
3.524755 2.335197 0.9411629 0 0 0 
3.524755 2.335197 0.9082692 0 0 0 
3.524755 2.335197 0.8754802 0 0 0 
3.524755 2.335197 0.842792 0 0 0 
3.524755 2.335197 0.8102003 0 0 0 
3.524755 2.335197 0.7777013 0 0 0 
3.524755 2.335197 0.7452908 0 0 0 
3.524755 2.335197 0.7129651 0 0 0 
3.524755 2.335197 0.6807203 0 0 0 
3.524755 2.335197 0.6485525 0 0 0 
3.524755 2.335197 0.6164578 0 0 0 
3.524755 2.335197 0.5844325 0 0 0 
3.524755 2.335197 0.5524729 0 0 0 
3.524755 2.335197 0.5205753 0 0 0 
3.524755 2.335197 0.488736 0 0 0 
3.524755 2.335197 0.4569512 0 0 0 
3.524755 2.335197 0.4252174 0 0 0 
3.524755 2.335197 0.393531 0 0 0 
3.524755 2.335197 0.3618883 0 0 0 
3.524755 2.335197 0.3302858 0 0 0 
3.524755 2.335197 0.29872 0 0 0 
3.524755 2.335197 0.2671872 0 0 0 
3.524755 2.335197 0.235684 0 0 0 
3.524755 2.335197 0.2042069 0 0 0 
3.524755 2.335197 0.1727524 0 0 0 
3.524755 2.335197 0.1413169 0 0 0 
3.524755 2.335197 0.109897 0 0 0 
3.524755 2.335197 0.07848927 0 0 0 
3.524755 2.335197 0.04709019 0 0 0 
3.524755 2.335197 0.01569629 0 0 0 
3.524755 2.335197 -0.01569587 0 0 0 
3.524755 2.335197 -0.04708976 0 0 0 
3.524755 2.335197 -0.07848886 0 0 0 
3.524755 2.335197 -0.1098966 0 0 0 
3.524755 2.335197 -0.1413165 0 0 0 
3.524755 2.335197 -0.1727519 0 0 0 
3.524755 2.335197 -0.2042065 0 0 0 
3.524755 2.335197 -0.2356836 0 0 0 
3.524755 2.335197 -0.2671867 0 0 0 
3.524755 2.335197 -0.2987195 0 0 0 
3.524755 2.335197 -0.3302853 0 0 0 
3.524755 2.335197 -0.3618878 0 0 0 
3.524755 2.335197 -0.3935305 0 0 0 
3.524755 2.335197 -0.4252169 0 0 0 
3.524755 2.335197 -0.4569508 0 0 0 
3.524755 2.335197 -0.4887355 0 0 0 
3.524755 2.335197 -0.5205749 0 0 0 
3.524755 2.335197 -0.5524726 0 0 0 
3.524755 2.335197 -0.5844322 0 0 0 
3.524755 2.335197 -0.6164574 0 0 0 
3.524755 2.335197 -0.6485521 0 0 0 
3.524755 2.335197 -0.68072 0 0 0 
3.524755 2.335197 -0.7129648 0 0 0 
3.524755 2.335197 -0.7452905 0 0 0 
3.524755 2.335197 -0.7777009 0 0 0 
3.524755 2.335197 -0.8102 0 0 0 
3.524755 2.335197 -0.8427916 0 0 0 
3.524755 2.335197 -0.8754799 0 0 0 
3.524755 2.335197 -0.9082689 0 0 0 
3.524755 2.335197 -0.9411625 0 0 0 
3.524755 2.335197 -0.9741651 0 0 0 
3.5289 2.329975 1.007419 0 0 0 
3.5289 2.329975 0.9742984 0 0 0 
3.5289 2.329975 0.9412912 0 0 0 
3.5289 2.329975 0.908393 0 0 0 
3.5289 2.329975 0.8755996 0 0 0 
3.5289 2.329975 0.8429069 0 0 0 
3.5289 2.329975 0.8103108 0 0 0 
3.5289 2.329975 0.7778073 0 0 0 
3.5289 2.329975 0.7453925 0 0 0 
3.5289 2.329975 0.7130623 0 0 0 
3.5289 2.329975 0.6808131 0 0 0 
3.5289 2.329975 0.6486409 0 0 0 
3.5289 2.329975 0.6165419 0 0 0 
3.5289 2.329975 0.5845122 0 0 0 
3.5289 2.329975 0.5525483 0 0 0 
3.5289 2.329975 0.5206463 0 0 0 
3.5289 2.329975 0.4888026 0 0 0 
3.5289 2.329975 0.4570135 0 0 0 
3.5289 2.329975 0.4252754 0 0 0 
3.5289 2.329975 0.3935846 0 0 0 
3.5289 2.329975 0.3619376 0 0 0 
3.5289 2.329975 0.3303308 0 0 0 
3.5289 2.329975 0.2987607 0 0 0 
3.5289 2.329975 0.2672236 0 0 0 
3.5289 2.329975 0.2357161 0 0 0 
3.5289 2.329975 0.2042347 0 0 0 
3.5289 2.329975 0.1727759 0 0 0 
3.5289 2.329975 0.1413362 0 0 0 
3.5289 2.329975 0.109912 0 0 0 
3.5289 2.329975 0.07849997 0 0 0 
3.5289 2.329975 0.04709661 0 0 0 
3.5289 2.329975 0.01569843 0 0 0 
3.5289 2.329975 -0.01569801 0 0 0 
3.5289 2.329975 -0.04709619 0 0 0 
3.5289 2.329975 -0.07849956 0 0 0 
3.5289 2.329975 -0.1099116 0 0 0 
3.5289 2.329975 -0.1413357 0 0 0 
3.5289 2.329975 -0.1727755 0 0 0 
3.5289 2.329975 -0.2042343 0 0 0 
3.5289 2.329975 -0.2357157 0 0 0 
3.5289 2.329975 -0.2672232 0 0 0 
3.5289 2.329975 -0.2987603 0 0 0 
3.5289 2.329975 -0.3303304 0 0 0 
3.5289 2.329975 -0.3619372 0 0 0 
3.5289 2.329975 -0.3935842 0 0 0 
3.5289 2.329975 -0.425275 0 0 0 
3.5289 2.329975 -0.4570131 0 0 0 
3.5289 2.329975 -0.4888022 0 0 0 
3.5289 2.329975 -0.5206459 0 0 0 
3.5289 2.329975 -0.5525479 0 0 0 
3.5289 2.329975 -0.5845119 0 0 0 
3.5289 2.329975 -0.6165415 0 0 0 
3.5289 2.329975 -0.6486405 0 0 0 
3.5289 2.329975 -0.6808128 0 0 0 
3.5289 2.329975 -0.713062 0 0 0 
3.5289 2.329975 -0.7453921 0 0 0 
3.5289 2.329975 -0.7778069 0 0 0 
3.5289 2.329975 -0.8103104 0 0 0 
3.5289 2.329975 -0.8429065 0 0 0 
3.5289 2.329975 -0.8755993 0 0 0 
3.5289 2.329975 -0.9083927 0 0 0 
3.5289 2.329975 -0.9412909 0 0 0 
3.5289 2.329975 -0.974298 0 0 0 
3.533051 2.324755 1.00756 0 0 0 
3.533051 2.324755 0.974435 0 0 0 
3.533051 2.324755 0.9414233 0 0 0 
3.533051 2.324755 0.9085205 0 0 0 
3.533051 2.324755 0.8757225 0 0 0 
3.533051 2.324755 0.8430251 0 0 0 
3.533051 2.324755 0.8104245 0 0 0 
3.533051 2.324755 0.7779164 0 0 0 
3.533051 2.324755 0.745497 0 0 0 
3.533051 2.324755 0.7131624 0 0 0 
3.533051 2.324755 0.6809086 0 0 0 
3.533051 2.324755 0.6487319 0 0 0 
3.533051 2.324755 0.6166283 0 0 0 
3.533051 2.324755 0.5845942 0 0 0 
3.533051 2.324755 0.5526258 0 0 0 
3.533051 2.324755 0.5207193 0 0 0 
3.533051 2.324755 0.4888712 0 0 0 
3.533051 2.324755 0.4570776 0 0 0 
3.533051 2.324755 0.425335 0 0 0 
3.533051 2.324755 0.3936398 0 0 0 
3.533051 2.324755 0.3619884 0 0 0 
3.533051 2.324755 0.3303772 0 0 0 
3.533051 2.324755 0.2988026 0 0 0 
3.533051 2.324755 0.2672611 0 0 0 
3.533051 2.324755 0.2357492 0 0 0 
3.533051 2.324755 0.2042634 0 0 0 
3.533051 2.324755 0.1728002 0 0 0 
3.533051 2.324755 0.141356 0 0 0 
3.533051 2.324755 0.1099274 0 0 0 
3.533051 2.324755 0.07851098 0 0 0 
3.533051 2.324755 0.04710322 0 0 0 
3.533051 2.324755 0.01570063 0 0 0 
3.533051 2.324755 -0.01570022 0 0 0 
3.533051 2.324755 -0.0471028 0 0 0 
3.533051 2.324755 -0.07851057 0 0 0 
3.533051 2.324755 -0.109927 0 0 0 
3.533051 2.324755 -0.1413556 0 0 0 
3.533051 2.324755 -0.1727997 0 0 0 
3.533051 2.324755 -0.204263 0 0 0 
3.533051 2.324755 -0.2357488 0 0 0 
3.533051 2.324755 -0.2672607 0 0 0 
3.533051 2.324755 -0.2988022 0 0 0 
3.533051 2.324755 -0.3303767 0 0 0 
3.533051 2.324755 -0.361988 0 0 0 
3.533051 2.324755 -0.3936394 0 0 0 
3.533051 2.324755 -0.4253346 0 0 0 
3.533051 2.324755 -0.4570772 0 0 0 
3.533051 2.324755 -0.4888708 0 0 0 
3.533051 2.324755 -0.520719 0 0 0 
3.533051 2.324755 -0.5526254 0 0 0 
3.533051 2.324755 -0.5845939 0 0 0 
3.533051 2.324755 -0.616628 0 0 0 
3.533051 2.324755 -0.6487315 0 0 0 
3.533051 2.324755 -0.6809083 0 0 0 
3.533051 2.324755 -0.7131621 0 0 0 
3.533051 2.324755 -0.7454967 0 0 0 
3.533051 2.324755 -0.7779161 0 0 0 
3.533051 2.324755 -0.8104241 0 0 0 
3.533051 2.324755 -0.8430248 0 0 0 
3.533051 2.324755 -0.8757221 0 0 0 
3.533051 2.324755 -0.9085202 0 0 0 
3.533051 2.324755 -0.9414229 0 0 0 
3.533051 2.324755 -0.9744347 0 0 0 
3.541386 2.322277 1.008896 0 0 0 
3.541386 2.322277 0.9757266 0 0 0 
3.541386 2.322277 0.9426711 0 0 0 
3.541386 2.322277 0.9097247 0 0 0 
3.541386 2.322277 0.8768832 0 0 0 
3.541386 2.322277 0.8441426 0 0 0 
3.541386 2.322277 0.8114986 0 0 0 
3.541386 2.322277 0.7789475 0 0 0 
3.541386 2.322277 0.7464852 0 0 0 
3.541386 2.322277 0.7141077 0 0 0 
3.541386 2.322277 0.6818112 0 0 0 
3.541386 2.322277 0.6495917 0 0 0 
3.541386 2.322277 0.6174456 0 0 0 
3.541386 2.322277 0.5853691 0 0 0 
3.541386 2.322277 0.5533583 0 0 0 
3.541386 2.322277 0.5214095 0 0 0 
3.541386 2.322277 0.4895192 0 0 0 
3.541386 2.322277 0.4576835 0 0 0 
3.541386 2.322277 0.4258988 0 0 0 
3.541386 2.322277 0.3941616 0 0 0 
3.541386 2.322277 0.3624682 0 0 0 
3.541386 2.322277 0.3308151 0 0 0 
3.541386 2.322277 0.2991986 0 0 0 
3.541386 2.322277 0.2676153 0 0 0 
3.541386 2.322277 0.2360617 0 0 0 
3.541386 2.322277 0.2045341 0 0 0 
3.541386 2.322277 0.1730292 0 0 0 
3.541386 2.322277 0.1415433 0 0 0 
3.541386 2.322277 0.1100731 0 0 0 
3.541386 2.322277 0.07861505 0 0 0 
3.541386 2.322277 0.04716565 0 0 0 
3.541386 2.322277 0.01572144 0 0 0 
3.541386 2.322277 -0.01572103 0 0 0 
3.541386 2.322277 -0.04716523 0 0 0 
3.541386 2.322277 -0.07861464 0 0 0 
3.541386 2.322277 -0.1100727 0 0 0 
3.541386 2.322277 -0.1415429 0 0 0 
3.541386 2.322277 -0.1730288 0 0 0 
3.541386 2.322277 -0.2045337 0 0 0 
3.541386 2.322277 -0.2360613 0 0 0 
3.541386 2.322277 -0.2676149 0 0 0 
3.541386 2.322277 -0.2991982 0 0 0 
3.541386 2.322277 -0.3308147 0 0 0 
3.541386 2.322277 -0.3624678 0 0 0 
3.541386 2.322277 -0.3941612 0 0 0 
3.541386 2.322277 -0.4258984 0 0 0 
3.541386 2.322277 -0.4576831 0 0 0 
3.541386 2.322277 -0.4895188 0 0 0 
3.541386 2.322277 -0.5214092 0 0 0 
3.541386 2.322277 -0.5533579 0 0 0 
3.541386 2.322277 -0.5853688 0 0 0 
3.541386 2.322277 -0.6174453 0 0 0 
3.541386 2.322277 -0.6495914 0 0 0 
3.541386 2.322277 -0.6818108 0 0 0 
3.541386 2.322277 -0.7141073 0 0 0 
3.541386 2.322277 -0.7464848 0 0 0 
3.541386 2.322277 -0.7789472 0 0 0 
3.541386 2.322277 -0.8114983 0 0 0 
3.541386 2.322277 -0.8441422 0 0 0 
3.541386 2.322277 -0.8768829 0 0 0 
3.541386 2.322277 -0.9097244 0 0 0 
3.541386 2.322277 -0.9426708 0 0 0 
3.541386 2.322277 -0.9757262 0 0 0 
3.54557 2.317064 1.009049 0 0 0 
3.54557 2.317064 0.9758754 0 0 0 
3.54557 2.317064 0.9428148 0 0 0 
3.54557 2.317064 0.9098634 0 0 0 
3.54557 2.317064 0.8770169 0 0 0 
3.54557 2.317064 0.8442712 0 0 0 
3.54557 2.317064 0.8116224 0 0 0 
3.54557 2.317064 0.7790663 0 0 0 
3.54557 2.317064 0.746599 0 0 0 
3.54557 2.317064 0.7142166 0 0 0 
3.54557 2.317064 0.6819151 0 0 0 
3.54557 2.317064 0.6496908 0 0 0 
3.54557 2.317064 0.6175398 0 0 0 
3.54557 2.317064 0.5854583 0 0 0 
3.54557 2.317064 0.5534427 0 0 0 
3.54557 2.317064 0.521489 0 0 0 
3.54557 2.317064 0.4895938 0 0 0 
3.54557 2.317064 0.4577532 0 0 0 
3.54557 2.317064 0.4259638 0 0 0 
3.54557 2.317064 0.3942217 0 0 0 
3.54557 2.317064 0.3625235 0 0 0 
3.54557 2.317064 0.3308655 0 0 0 
3.54557 2.317064 0.2992443 0 0 0 
3.54557 2.317064 0.2676561 0 0 0 
3.54557 2.317064 0.2360977 0 0 0 
3.54557 2.317064 0.2045653 0 0 0 
3.54557 2.317064 0.1730556 0 0 0 
3.54557 2.317064 0.1415649 0 0 0 
3.54557 2.317064 0.1100899 0 0 0 
3.54557 2.317064 0.07862703 0 0 0 
3.54557 2.317064 0.04717284 0 0 0 
3.54557 2.317064 0.01572384 0 0 0 
3.54557 2.317064 -0.01572342 0 0 0 
3.54557 2.317064 -0.04717242 0 0 0 
3.54557 2.317065 -0.07862663 0 0 0 
3.54557 2.317065 -0.1100895 0 0 0 
3.54557 2.317065 -0.1415645 0 0 0 
3.54557 2.317065 -0.1730552 0 0 0 
3.54557 2.317065 -0.2045649 0 0 0 
3.54557 2.317065 -0.2360973 0 0 0 
3.54557 2.317065 -0.2676557 0 0 0 
3.54557 2.317065 -0.2992438 0 0 0 
3.54557 2.317065 -0.3308651 0 0 0 
3.54557 2.317065 -0.362523 0 0 0 
3.54557 2.317065 -0.3942213 0 0 0 
3.54557 2.317065 -0.4259633 0 0 0 
3.54557 2.317065 -0.4577528 0 0 0 
3.54557 2.317065 -0.4895934 0 0 0 
3.54557 2.317065 -0.5214887 0 0 0 
3.54557 2.317065 -0.5534423 0 0 0 
3.54557 2.317065 -0.585458 0 0 0 
3.54557 2.317065 -0.6175395 0 0 0 
3.54557 2.317065 -0.6496904 0 0 0 
3.54557 2.317065 -0.6819147 0 0 0 
3.54557 2.317065 -0.7142162 0 0 0 
3.54557 2.317065 -0.7465987 0 0 0 
3.54557 2.317065 -0.779066 0 0 0 
3.54557 2.317065 -0.811622 0 0 0 
3.54557 2.317065 -0.8442709 0 0 0 
3.54557 2.317065 -0.8770165 0 0 0 
3.54557 2.317065 -0.9098631 0 0 0 
3.54557 2.317065 -0.9428145 0 0 0 
3.54557 2.317065 -0.975875 0 0 0 
3.549761 2.311853 1.009207 0 0 0 
3.549761 2.311853 0.976028 0 0 0 
3.549761 2.311853 0.9429623 0 0 0 
3.549761 2.311853 0.9100057 0 0 0 
3.549761 2.311853 0.8771541 0 0 0 
3.549761 2.311853 0.8444033 0 0 0 
3.549761 2.311853 0.8117493 0 0 0 
3.549761 2.311853 0.7791881 0 0 0 
3.549761 2.311853 0.7467157 0 0 0 
3.549761 2.311853 0.7143282 0 0 0 
3.549761 2.311853 0.6820217 0 0 0 
3.549761 2.311853 0.6497924 0 0 0 
3.549761 2.311853 0.6176364 0 0 0 
3.549761 2.311853 0.5855499 0 0 0 
3.549761 2.311853 0.5535292 0 0 0 
3.549761 2.311853 0.5215706 0 0 0 
3.549761 2.311853 0.4896704 0 0 0 
3.549761 2.311853 0.4578248 0 0 0 
3.549761 2.311853 0.4260304 0 0 0 
3.549761 2.311853 0.3942833 0 0 0 
3.549761 2.311853 0.3625802 0 0 0 
3.549761 2.311853 0.3309172 0 0 0 
3.549761 2.311853 0.299291 0 0 0 
3.549761 2.311853 0.267698 0 0 0 
3.549761 2.311853 0.2361346 0 0 0 
3.549761 2.311853 0.2045973 0 0 0 
3.549761 2.311853 0.1730826 0 0 0 
3.549761 2.311853 0.1415871 0 0 0 
3.549761 2.311853 0.1101071 0 0 0 
3.549761 2.311853 0.07863933 0 0 0 
3.549761 2.311853 0.04718021 0 0 0 
3.549761 2.311853 0.0157263 0 0 0 
3.549761 2.311853 -0.01572588 0 0 0 
3.549761 2.311853 -0.0471798 0 0 0 
3.549761 2.311854 -0.07863893 0 0 0 
3.549761 2.311854 -0.1101067 0 0 0 
3.549761 2.311854 -0.1415866 0 0 0 
3.549761 2.311854 -0.1730822 0 0 0 
3.549761 2.311854 -0.2045969 0 0 0 
3.549761 2.311854 -0.2361342 0 0 0 
3.549761 2.311854 -0.2676976 0 0 0 
3.549761 2.311854 -0.2992906 0 0 0 
3.549761 2.311854 -0.3309168 0 0 0 
3.549761 2.311854 -0.3625797 0 0 0 
3.549761 2.311854 -0.3942829 0 0 0 
3.549761 2.311854 -0.42603 0 0 0 
3.549761 2.311854 -0.4578244 0 0 0 
3.549761 2.311854 -0.4896699 0 0 0 
3.549761 2.311854 -0.5215702 0 0 0 
3.549761 2.311854 -0.5535288 0 0 0 
3.549761 2.311854 -0.5855495 0 0 0 
3.549761 2.311854 -0.617636 0 0 0 
3.549761 2.311854 -0.649792 0 0 0 
3.549761 2.311854 -0.6820214 0 0 0 
3.549761 2.311854 -0.7143279 0 0 0 
3.549761 2.311854 -0.7467154 0 0 0 
3.549761 2.311854 -0.7791877 0 0 0 
3.549761 2.311854 -0.8117489 0 0 0 
3.549761 2.311854 -0.8444029 0 0 0 
3.549761 2.311854 -0.8771537 0 0 0 
3.549761 2.311854 -0.9100053 0 0 0 
3.549761 2.311854 -0.9429619 0 0 0 
3.549761 2.311854 -0.9760276 0 0 0 
3.553961 2.306647 1.00937 0 0 0 
3.553961 2.306647 0.9761854 0 0 0 
3.553961 2.306647 0.9431144 0 0 0 
3.553961 2.306647 0.9101525 0 0 0 
3.553961 2.306647 0.8772956 0 0 0 
3.553961 2.306647 0.8445395 0 0 0 
3.553961 2.306647 0.8118802 0 0 0 
3.553961 2.306647 0.7793138 0 0 0 
3.553961 2.306647 0.7468362 0 0 0 
3.553961 2.306647 0.7144434 0 0 0 
3.553961 2.306647 0.6821318 0 0 0 
3.553961 2.306647 0.6498972 0 0 0 
3.553961 2.306647 0.617736 0 0 0 
3.553961 2.306647 0.5856444 0 0 0 
3.553961 2.306647 0.5536185 0 0 0 
3.553961 2.306647 0.5216547 0 0 0 
3.553961 2.306647 0.4897493 0 0 0 
3.553961 2.306647 0.4578987 0 0 0 
3.553961 2.306647 0.4260991 0 0 0 
3.553961 2.306647 0.3943469 0 0 0 
3.553961 2.306647 0.3626387 0 0 0 
3.553961 2.306647 0.3309706 0 0 0 
3.553961 2.306647 0.2993393 0 0 0 
3.553961 2.306647 0.2677412 0 0 0 
3.553961 2.306647 0.2361727 0 0 0 
3.553961 2.306647 0.2046303 0 0 0 
3.553961 2.306647 0.1731105 0 0 0 
3.553961 2.306647 0.1416099 0 0 0 
3.553961 2.306647 0.1101249 0 0 0 
3.553961 2.306647 0.07865201 0 0 0 
3.553961 2.306647 0.04718782 0 0 0 
3.553961 2.306647 0.01572883 0 0 0 
3.553961 2.306647 -0.01572842 0 0 0 
3.553961 2.306647 -0.04718741 0 0 0 
3.553961 2.306647 -0.07865161 0 0 0 
3.553961 2.306647 -0.1101245 0 0 0 
3.553961 2.306647 -0.1416095 0 0 0 
3.553961 2.306647 -0.1731101 0 0 0 
3.553961 2.306647 -0.2046299 0 0 0 
3.553961 2.306647 -0.2361723 0 0 0 
3.553961 2.306647 -0.2677408 0 0 0 
3.553961 2.306647 -0.2993389 0 0 0 
3.553961 2.306647 -0.3309702 0 0 0 
3.553961 2.306647 -0.3626382 0 0 0 
3.553961 2.306647 -0.3943465 0 0 0 
3.553961 2.306647 -0.4260986 0 0 0 
3.553961 2.306647 -0.4578983 0 0 0 
3.553961 2.306647 -0.4897489 0 0 0 
3.553961 2.306647 -0.5216544 0 0 0 
3.553961 2.306647 -0.5536181 0 0 0 
3.553961 2.306647 -0.585644 0 0 0 
3.553961 2.306647 -0.6177356 0 0 0 
3.553961 2.306647 -0.6498969 0 0 0 
3.553961 2.306647 -0.6821314 0 0 0 
3.553961 2.306647 -0.7144431 0 0 0 
3.553961 2.306647 -0.7468358 0 0 0 
3.553961 2.306647 -0.7793134 0 0 0 
3.553961 2.306647 -0.8118799 0 0 0 
3.553961 2.306647 -0.8445391 0 0 0 
3.553961 2.306647 -0.8772952 0 0 0 
3.553961 2.306647 -0.9101521 0 0 0 
3.553961 2.306647 -0.943114 0 0 0 
3.553961 2.306647 -0.9761851 0 0 0 
3.558175 2.301446 1.009539 0 0 0 
3.558175 2.301446 0.9763487 0 0 0 
3.558175 2.301446 0.9432721 0 0 0 
3.558175 2.301446 0.9103047 0 0 0 
3.558175 2.301446 0.8774422 0 0 0 
3.558175 2.301446 0.8446807 0 0 0 
3.558175 2.301446 0.812016 0 0 0 
3.558175 2.301446 0.7794442 0 0 0 
3.558175 2.301446 0.7469611 0 0 0 
3.558175 2.301446 0.714563 0 0 0 
3.558175 2.301446 0.6822459 0 0 0 
3.558175 2.301446 0.6500059 0 0 0 
3.558175 2.301446 0.6178393 0 0 0 
3.558175 2.301446 0.5857423 0 0 0 
3.558175 2.301446 0.5537111 0 0 0 
3.558175 2.301446 0.5217419 0 0 0 
3.558175 2.301446 0.4898312 0 0 0 
3.558175 2.301446 0.4579753 0 0 0 
3.558175 2.301446 0.4261703 0 0 0 
3.558175 2.301446 0.3944129 0 0 0 
3.558175 2.301446 0.3626993 0 0 0 
3.558175 2.301446 0.331026 0 0 0 
3.558175 2.301446 0.2993894 0 0 0 
3.558175 2.301446 0.267786 0 0 0 
3.558175 2.301446 0.2362122 0 0 0 
3.558175 2.301446 0.2046645 0 0 0 
3.558175 2.301446 0.1731395 0 0 0 
3.558175 2.301446 0.1416336 0 0 0 
3.558175 2.301446 0.1101433 0 0 0 
3.558175 2.301446 0.07866517 0 0 0 
3.558175 2.301446 0.04719571 0 0 0 
3.558175 2.301446 0.01573146 0 0 0 
3.558175 2.301446 -0.01573106 0 0 0 
3.558175 2.301446 -0.0471953 0 0 0 
3.558175 2.301446 -0.07866476 0 0 0 
3.558175 2.301446 -0.1101429 0 0 0 
3.558175 2.301446 -0.1416332 0 0 0 
3.558175 2.301446 -0.1731391 0 0 0 
3.558175 2.301446 -0.2046641 0 0 0 
3.558175 2.301446 -0.2362118 0 0 0 
3.558175 2.301446 -0.2677855 0 0 0 
3.558175 2.301446 -0.299389 0 0 0 
3.558175 2.301446 -0.3310256 0 0 0 
3.558175 2.301446 -0.3626989 0 0 0 
3.558175 2.301446 -0.3944125 0 0 0 
3.558175 2.301446 -0.4261699 0 0 0 
3.558175 2.301446 -0.4579749 0 0 0 
3.558175 2.301446 -0.4898308 0 0 0 
3.558175 2.301446 -0.5217416 0 0 0 
3.558175 2.301446 -0.5537107 0 0 0 
3.558175 2.301446 -0.5857419 0 0 0 
3.558175 2.301446 -0.617839 0 0 0 
3.558175 2.301446 -0.6500055 0 0 0 
3.558175 2.301446 -0.6822455 0 0 0 
3.558175 2.301446 -0.7145626 0 0 0 
3.558175 2.301446 -0.7469608 0 0 0 
3.558175 2.301446 -0.7794438 0 0 0 
3.558175 2.301446 -0.8120157 0 0 0 
3.558175 2.301446 -0.8446804 0 0 0 
3.558175 2.301446 -0.8774419 0 0 0 
3.558175 2.301446 -0.9103043 0 0 0 
3.558175 2.301446 -0.9432718 0 0 0 
3.558175 2.301446 -0.9763483 0 0 0 
3.562395 2.296247 1.009711 0 0 0 
3.562395 2.296247 0.9765157 0 0 0 
3.562395 2.296247 0.9434335 0 0 0 
3.562395 2.296247 0.9104604 0 0 0 
3.562395 2.296247 0.8775924 0 0 0 
3.562395 2.296247 0.8448253 0 0 0 
3.562395 2.296247 0.8121549 0 0 0 
3.562395 2.296247 0.7795775 0 0 0 
3.562395 2.296247 0.7470889 0 0 0 
3.562395 2.296247 0.7146852 0 0 0 
3.562395 2.296247 0.6823626 0 0 0 
3.562395 2.296247 0.6501171 0 0 0 
3.562395 2.296247 0.617945 0 0 0 
3.562395 2.296247 0.5858425 0 0 0 
3.562395 2.296247 0.5538058 0 0 0 
3.562395 2.296247 0.5218312 0 0 0 
3.562395 2.296247 0.4899151 0 0 0 
3.562395 2.296247 0.4580536 0 0 0 
3.562395 2.296247 0.4262432 0 0 0 
3.562395 2.296247 0.3944804 0 0 0 
3.562395 2.296247 0.3627613 0 0 0 
3.562395 2.296247 0.3310826 0 0 0 
3.562395 2.296247 0.2994406 0 0 0 
3.562395 2.296247 0.2678318 0 0 0 
3.562395 2.296247 0.2362526 0 0 0 
3.562395 2.296247 0.2046995 0 0 0 
3.562395 2.296247 0.1731691 0 0 0 
3.562395 2.296247 0.1416578 0 0 0 
3.562395 2.296247 0.1101621 0 0 0 
3.562395 2.296247 0.07867863 0 0 0 
3.562395 2.296247 0.04720378 0 0 0 
3.562395 2.296247 0.01573415 0 0 0 
3.562395 2.296247 -0.01573375 0 0 0 
3.562395 2.296247 -0.04720338 0 0 0 
3.562395 2.296247 -0.07867821 0 0 0 
3.562395 2.296247 -0.1101617 0 0 0 
3.562395 2.296247 -0.1416574 0 0 0 
3.562395 2.296247 -0.1731687 0 0 0 
3.562395 2.296247 -0.2046991 0 0 0 
3.562395 2.296247 -0.2362522 0 0 0 
3.562395 2.296247 -0.2678314 0 0 0 
3.562395 2.296247 -0.2994402 0 0 0 
3.562395 2.296247 -0.3310822 0 0 0 
3.562395 2.296247 -0.3627609 0 0 0 
3.562395 2.296247 -0.39448 0 0 0 
3.562395 2.296247 -0.4262428 0 0 0 
3.562395 2.296247 -0.4580532 0 0 0 
3.562395 2.296247 -0.4899147 0 0 0 
3.562395 2.296247 -0.5218309 0 0 0 
3.562395 2.296247 -0.5538055 0 0 0 
3.562395 2.296247 -0.5858421 0 0 0 
3.562395 2.296247 -0.6179447 0 0 0 
3.562395 2.296247 -0.6501167 0 0 0 
3.562395 2.296247 -0.6823622 0 0 0 
3.562395 2.296247 -0.7146848 0 0 0 
3.562395 2.296247 -0.7470886 0 0 0 
3.562395 2.296247 -0.7795771 0 0 0 
3.562395 2.296247 -0.8121546 0 0 0 
3.562395 2.296247 -0.8448249 0 0 0 
3.562395 2.296247 -0.877592 0 0 0 
3.562395 2.296247 -0.9104601 0 0 0 
3.562395 2.296247 -0.9434332 0 0 0 
3.562395 2.296247 -0.9765154 0 0 0 
3.570869 2.293778 1.011091 0 0 0 
3.570869 2.293778 0.9778498 0 0 0 
3.570869 2.293778 0.9447224 0 0 0 
3.570869 2.293778 0.9117042 0 0 0 
3.570869 2.293778 0.8787913 0 0 0 
3.570869 2.293778 0.8459794 0 0 0 
3.570869 2.293778 0.8132645 0 0 0 
3.570869 2.293778 0.7806425 0 0 0 
3.570869 2.293778 0.7481095 0 0 0 
3.570869 2.293778 0.7156616 0 0 0 
3.570869 2.293778 0.6832948 0 0 0 
3.570869 2.293778 0.6510053 0 0 0 
3.570869 2.293778 0.6187892 0 0 0 
3.570869 2.293778 0.5866429 0 0 0 
3.570869 2.293778 0.5545624 0 0 0 
3.570869 2.293778 0.5225441 0 0 0 
3.570869 2.293778 0.4905843 0 0 0 
3.570869 2.293778 0.4586794 0 0 0 
3.570869 2.293778 0.4268256 0 0 0 
3.570869 2.293778 0.3950193 0 0 0 
3.570869 2.293778 0.3632569 0 0 0 
3.570869 2.293778 0.3315349 0 0 0 
3.570869 2.293778 0.2998497 0 0 0 
3.570869 2.293778 0.2681977 0 0 0 
3.570869 2.293778 0.2365753 0 0 0 
3.570869 2.293778 0.2049792 0 0 0 
3.570869 2.293778 0.1734057 0 0 0 
3.570869 2.293778 0.1418513 0 0 0 
3.570869 2.293778 0.1103126 0 0 0 
3.570869 2.293778 0.07878611 0 0 0 
3.570869 2.293778 0.04726827 0 0 0 
3.570869 2.293778 0.01575565 0 0 0 
3.570869 2.293778 -0.01575524 0 0 0 
3.570869 2.293778 -0.04726787 0 0 0 
3.570869 2.293778 -0.0787857 0 0 0 
3.570869 2.293778 -0.1103122 0 0 0 
3.570869 2.293778 -0.1418509 0 0 0 
3.570869 2.293778 -0.1734053 0 0 0 
3.570869 2.293778 -0.2049788 0 0 0 
3.570869 2.293778 -0.2365749 0 0 0 
3.570869 2.293778 -0.2681973 0 0 0 
3.570869 2.293778 -0.2998493 0 0 0 
3.570869 2.293778 -0.3315345 0 0 0 
3.570869 2.293778 -0.3632565 0 0 0 
3.570869 2.293778 -0.3950188 0 0 0 
3.570869 2.293778 -0.4268251 0 0 0 
3.570869 2.293778 -0.458679 0 0 0 
3.570869 2.293778 -0.4905839 0 0 0 
3.570869 2.293778 -0.5225437 0 0 0 
3.570869 2.293778 -0.554562 0 0 0 
3.570869 2.293778 -0.5866425 0 0 0 
3.570869 2.293778 -0.6187888 0 0 0 
3.570869 2.293778 -0.6510049 0 0 0 
3.570869 2.293778 -0.6832944 0 0 0 
3.570869 2.293778 -0.7156612 0 0 0 
3.570869 2.293778 -0.7481092 0 0 0 
3.570869 2.293778 -0.7806422 0 0 0 
3.570869 2.293778 -0.8132641 0 0 0 
3.570869 2.293778 -0.845979 0 0 0 
3.570869 2.293778 -0.8787909 0 0 0 
3.570869 2.293778 -0.9117039 0 0 0 
3.570869 2.293778 -0.944722 0 0 0 
3.570869 2.293778 -0.9778494 0 0 0 
3.572543 2.286934 1.010546 0 0 0 
3.575123 2.288585 0.9780291 0 0 0 
3.575123 2.288585 0.9448956 0 0 0 
3.575123 2.288585 0.9118714 0 0 0 
3.575123 2.288585 0.8789524 0 0 0 
3.575123 2.288585 0.8461345 0 0 0 
3.575123 2.288585 0.8134136 0 0 0 
3.575123 2.288585 0.7807856 0 0 0 
3.575123 2.288585 0.7482467 0 0 0 
3.575123 2.288585 0.7157928 0 0 0 
3.575123 2.288585 0.6834201 0 0 0 
3.575123 2.288585 0.6511246 0 0 0 
3.575123 2.288585 0.6189027 0 0 0 
3.575123 2.288585 0.5867504 0 0 0 
3.575123 2.288585 0.5546641 0 0 0 
3.575123 2.288585 0.5226399 0 0 0 
3.575123 2.288585 0.4906743 0 0 0 
3.575123 2.288585 0.4587635 0 0 0 
3.575123 2.288585 0.4269038 0 0 0 
3.575123 2.288585 0.3950917 0 0 0 
3.575123 2.288585 0.3633235 0 0 0 
3.575123 2.288585 0.3315957 0 0 0 
3.575123 2.288585 0.2999047 0 0 0 
3.575123 2.288585 0.2682469 0 0 0 
3.575123 2.288585 0.2366187 0 0 0 
3.575123 2.288585 0.2050168 0 0 0 
3.575123 2.288585 0.1734375 0 0 0 
3.575123 2.288585 0.1418773 0 0 0 
3.575123 2.288585 0.1103329 0 0 0 
3.575123 2.288585 0.07880055 0 0 0 
3.575123 2.288585 0.04727694 0 0 0 
3.575123 2.288585 0.01575853 0 0 0 
3.575123 2.288585 -0.01575813 0 0 0 
3.575123 2.288585 -0.04727653 0 0 0 
3.575123 2.288585 -0.07880015 0 0 0 
3.575123 2.288585 -0.1103325 0 0 0 
3.575123 2.288585 -0.141877 0 0 0 
3.575123 2.288585 -0.1734371 0 0 0 
3.575123 2.288585 -0.2050164 0 0 0 
3.575123 2.288585 -0.2366183 0 0 0 
3.575123 2.288585 -0.2682464 0 0 0 
3.575123 2.288585 -0.2999043 0 0 0 
3.575123 2.288585 -0.3315953 0 0 0 
3.575123 2.288585 -0.3633231 0 0 0 
3.575123 2.288585 -0.3950913 0 0 0 
3.575123 2.288585 -0.4269034 0 0 0 
3.575123 2.288585 -0.4587631 0 0 0 
3.575123 2.288585 -0.4906739 0 0 0 
3.575123 2.288585 -0.5226396 0 0 0 
3.575123 2.288585 -0.5546637 0 0 0 
3.575123 2.288585 -0.58675 0 0 0 
3.575123 2.288585 -0.6189023 0 0 0 
3.575123 2.288585 -0.6511242 0 0 0 
3.575123 2.288585 -0.6834197 0 0 0 
3.575123 2.288585 -0.7157924 0 0 0 
3.575123 2.288585 -0.7482463 0 0 0 
3.575123 2.288585 -0.7807853 0 0 0 
3.575123 2.288585 -0.8134132 0 0 0 
3.575123 2.288585 -0.8461341 0 0 0 
3.575123 2.288585 -0.8789521 0 0 0 
3.575123 2.288585 -0.9118711 0 0 0 
3.575123 2.288585 -0.9448952 0 0 0 
3.575123 2.288585 -0.9780287 0 0 0 
3.579384 2.283394 1.011466 0 0 0 
3.579384 2.283394 0.9782122 0 0 0 
3.579384 2.283394 0.9450725 0 0 0 
3.579384 2.283394 0.9120422 0 0 0 
3.579384 2.283394 0.879117 0 0 0 
3.579384 2.283394 0.846293 0 0 0 
3.579384 2.283394 0.8135659 0 0 0 
3.579384 2.283394 0.7809318 0 0 0 
3.579384 2.283394 0.7483868 0 0 0 
3.579384 2.283394 0.7159268 0 0 0 
3.579384 2.283394 0.683548 0 0 0 
3.579384 2.283394 0.6512465 0 0 0 
3.579384 2.283394 0.6190186 0 0 0 
3.579384 2.283394 0.5868603 0 0 0 
3.579384 2.283394 0.554768 0 0 0 
3.579384 2.283394 0.5227378 0 0 0 
3.579384 2.283394 0.4907662 0 0 0 
3.579384 2.283394 0.4588494 0 0 0 
3.579384 2.283394 0.4269838 0 0 0 
3.579384 2.283394 0.3951657 0 0 0 
3.579384 2.283394 0.3633916 0 0 0 
3.579384 2.283394 0.3316578 0 0 0 
3.579384 2.283394 0.2999608 0 0 0 
3.579384 2.283394 0.2682971 0 0 0 
3.579384 2.283394 0.236663 0 0 0 
3.579384 2.283394 0.2050552 0 0 0 
3.579384 2.283394 0.17347 0 0 0 
3.579384 2.283394 0.1419039 0 0 0 
3.579384 2.283394 0.1103535 0 0 0 
3.579384 2.283394 0.07881531 0 0 0 
3.579384 2.283394 0.04728579 0 0 0 
3.579384 2.283394 0.01576148 0 0 0 
3.579384 2.283394 -0.01576108 0 0 0 
3.579384 2.283394 -0.04728539 0 0 0 
3.579384 2.283394 -0.07881491 0 0 0 
3.579384 2.283394 -0.1103531 0 0 0 
3.579384 2.283394 -0.1419035 0 0 0 
3.579384 2.283394 -0.1734696 0 0 0 
3.579384 2.283394 -0.2050548 0 0 0 
3.579384 2.283394 -0.2366626 0 0 0 
3.579384 2.283394 -0.2682967 0 0 0 
3.579384 2.283394 -0.2999604 0 0 0 
3.579384 2.283394 -0.3316574 0 0 0 
3.579384 2.283394 -0.3633912 0 0 0 
3.579384 2.283394 -0.3951653 0 0 0 
3.579384 2.283394 -0.4269834 0 0 0 
3.579384 2.283394 -0.458849 0 0 0 
3.579384 2.283394 -0.4907658 0 0 0 
3.579384 2.283394 -0.5227374 0 0 0 
3.579384 2.283394 -0.5547676 0 0 0 
3.579384 2.283394 -0.5868599 0 0 0 
3.579384 2.283394 -0.6190182 0 0 0 
3.579384 2.283394 -0.6512462 0 0 0 
3.579384 2.283394 -0.6835477 0 0 0 
3.579384 2.283394 -0.7159265 0 0 0 
3.579384 2.283394 -0.7483864 0 0 0 
3.579384 2.283394 -0.7809315 0 0 0 
3.579384 2.283394 -0.8135656 0 0 0 
3.579384 2.283394 -0.8462926 0 0 0 
3.579384 2.283394 -0.8791167 0 0 0 
3.579384 2.283394 -0.9120418 0 0 0 
3.579384 2.283394 -0.9450722 0 0 0 
3.579384 2.283394 -0.9782119 0 0 0 
3.583658 2.278209 1.011661 0 0 0 
3.583658 2.278209 0.9784012 0 0 0 
3.583658 2.278209 0.945255 0 0 0 
3.583658 2.278209 0.9122183 0 0 0 
3.583658 2.278209 0.8792868 0 0 0 
3.583658 2.278209 0.8464564 0 0 0 
3.583658 2.278209 0.813723 0 0 0 
3.583658 2.278209 0.7810827 0 0 0 
3.583658 2.278209 0.7485313 0 0 0 
3.583658 2.278209 0.7160651 0 0 0 
3.583658 2.278209 0.6836801 0 0 0 
3.583658 2.278209 0.6513724 0 0 0 
3.583658 2.278209 0.6191381 0 0 0 
3.583658 2.278209 0.5869736 0 0 0 
3.583658 2.278209 0.5548751 0 0 0 
3.583658 2.278209 0.5228388 0 0 0 
3.583658 2.278209 0.490861 0 0 0 
3.583658 2.278209 0.458938 0 0 0 
3.583658 2.278209 0.4270662 0 0 0 
3.583658 2.278209 0.395242 0 0 0 
3.583658 2.278209 0.3634618 0 0 0 
3.583658 2.278209 0.3317219 0 0 0 
3.583658 2.278209 0.3000188 0 0 0 
3.583658 2.278209 0.2683489 0 0 0 
3.583658 2.278209 0.2367087 0 0 0 
3.583658 2.278209 0.2050948 0 0 0 
3.583658 2.278209 0.1735035 0 0 0 
3.583658 2.278209 0.1419313 0 0 0 
3.583658 2.278209 0.1103748 0 0 0 
3.583658 2.278209 0.07883053 0 0 0 
3.583658 2.278209 0.04729492 0 0 0 
3.583658 2.278209 0.01576453 0 0 0 
3.583658 2.278209 -0.01576413 0 0 0 
3.583658 2.278209 -0.04729453 0 0 0 
3.583658 2.278209 -0.07883013 0 0 0 
3.583658 2.278209 -0.1103744 0 0 0 
3.583658 2.278209 -0.1419309 0 0 0 
3.583658 2.278209 -0.1735031 0 0 0 
3.583658 2.278209 -0.2050944 0 0 0 
3.583658 2.278209 -0.2367084 0 0 0 
3.583658 2.278209 -0.2683485 0 0 0 
3.583658 2.278209 -0.3000183 0 0 0 
3.583658 2.278209 -0.3317215 0 0 0 
3.583658 2.278209 -0.3634613 0 0 0 
3.583658 2.278209 -0.3952416 0 0 0 
3.583658 2.278209 -0.4270658 0 0 0 
3.583658 2.278209 -0.4589376 0 0 0 
3.583658 2.278209 -0.4908606 0 0 0 
3.583658 2.278209 -0.5228384 0 0 0 
3.583658 2.278209 -0.5548747 0 0 0 
3.583658 2.278209 -0.5869732 0 0 0 
3.583658 2.278209 -0.6191378 0 0 0 
3.583658 2.278209 -0.651372 0 0 0 
3.583658 2.278209 -0.6836797 0 0 0 
3.583658 2.278209 -0.7160648 0 0 0 
3.583658 2.278209 -0.748531 0 0 0 
3.583658 2.278209 -0.7810823 0 0 0 
3.583658 2.278209 -0.8137227 0 0 0 
3.583658 2.278209 -0.8464561 0 0 0 
3.583658 2.278209 -0.8792865 0 0 0 
3.583658 2.278209 -0.912218 0 0 0 
3.583658 2.278209 -0.9452547 0 0 0 
3.583658 2.278209 -0.9784008 0 0 0 
3.587939 2.273025 1.01186 0 0 0 
3.587939 2.273025 0.9785939 0 0 0 
3.587939 2.273025 0.9454412 0 0 0 
3.587939 2.273025 0.912398 0 0 0 
3.587939 2.273025 0.87946 0 0 0 
3.587939 2.273025 0.8466232 0 0 0 
3.587939 2.273025 0.8138834 0 0 0 
3.587939 2.273025 0.7812365 0 0 0 
3.587939 2.273025 0.7486788 0 0 0 
3.587939 2.273025 0.7162062 0 0 0 
3.587939 2.273025 0.6838148 0 0 0 
3.587939 2.273025 0.6515006 0 0 0 
3.587939 2.273025 0.6192601 0 0 0 
3.587939 2.273025 0.5870892 0 0 0 
3.587939 2.273025 0.5549844 0 0 0 
3.587939 2.273025 0.5229418 0 0 0 
3.587939 2.273025 0.4909577 0 0 0 
3.587939 2.273025 0.4590284 0 0 0 
3.587939 2.273025 0.4271504 0 0 0 
3.587939 2.273025 0.3953199 0 0 0 
3.587939 2.273025 0.3635333 0 0 0 
3.587939 2.273025 0.3317872 0 0 0 
3.587939 2.273025 0.3000779 0 0 0 
3.587939 2.273025 0.2684018 0 0 0 
3.587939 2.273025 0.2367554 0 0 0 
3.587939 2.273025 0.2051352 0 0 0 
3.587939 2.273025 0.1735376 0 0 0 
3.587939 2.273025 0.1419593 0 0 0 
3.587939 2.273025 0.1103966 0 0 0 
3.587939 2.273025 0.07884606 0 0 0 
3.587939 2.273025 0.04730424 0 0 0 
3.587939 2.273025 0.01576763 0 0 0 
3.587939 2.273025 -0.01576724 0 0 0 
3.587939 2.273025 -0.04730384 0 0 0 
3.587939 2.273025 -0.07884566 0 0 0 
3.587939 2.273025 -0.1103962 0 0 0 
3.587939 2.273025 -0.1419589 0 0 0 
3.587939 2.273025 -0.1735373 0 0 0 
3.587939 2.273025 -0.2051348 0 0 0 
3.587939 2.273025 -0.236755 0 0 0 
3.587939 2.273025 -0.2684014 0 0 0 
3.587939 2.273025 -0.3000774 0 0 0 
3.587939 2.273025 -0.3317868 0 0 0 
3.587939 2.273025 -0.3635329 0 0 0 
3.587939 2.273025 -0.3953195 0 0 0 
3.587939 2.273025 -0.42715 0 0 0 
3.587939 2.273025 -0.459028 0 0 0 
3.587939 2.273025 -0.4909573 0 0 0 
3.587939 2.273025 -0.5229414 0 0 0 
3.587939 2.273025 -0.554984 0 0 0 
3.587939 2.273025 -0.5870889 0 0 0 
3.587939 2.273025 -0.6192597 0 0 0 
3.587939 2.273025 -0.6515003 0 0 0 
3.587939 2.273025 -0.6838144 0 0 0 
3.587939 2.273025 -0.7162058 0 0 0 
3.587939 2.273025 -0.7486784 0 0 0 
3.587939 2.273025 -0.7812362 0 0 0 
3.587939 2.273025 -0.813883 0 0 0 
3.587939 2.273025 -0.8466228 0 0 0 
3.587939 2.273025 -0.8794597 0 0 0 
3.587939 2.273025 -0.9123977 0 0 0 
3.587939 2.273025 -0.9454409 0 0 0 
3.587939 2.273025 -0.9785935 0 0 0 
3.592234 2.267846 1.012065 0 0 0 
3.592234 2.267846 0.9787925 0 0 0 
3.592234 2.267846 0.9456331 0 0 0 
3.592234 2.267846 0.9125832 0 0 0 
3.592234 2.267846 0.8796385 0 0 0 
3.592234 2.267846 0.846795 0 0 0 
3.592234 2.267846 0.8140485 0 0 0 
3.592234 2.267846 0.7813951 0 0 0 
3.592234 2.267846 0.7488307 0 0 0 
3.592234 2.267846 0.7163515 0 0 0 
3.592234 2.267846 0.6839535 0 0 0 
3.592234 2.267846 0.6516328 0 0 0 
3.592234 2.267846 0.6193858 0 0 0 
3.592234 2.267846 0.5872084 0 0 0 
3.592234 2.267846 0.555097 0 0 0 
3.592234 2.267846 0.5230479 0 0 0 
3.592234 2.267846 0.4910573 0 0 0 
3.592234 2.267846 0.4591216 0 0 0 
3.592234 2.267846 0.427237 0 0 0 
3.592234 2.267846 0.3954001 0 0 0 
3.592234 2.267846 0.3636071 0 0 0 
3.592234 2.267846 0.3318546 0 0 0 
3.592234 2.267846 0.3001388 0 0 0 
3.592234 2.267846 0.2684562 0 0 0 
3.592234 2.267846 0.2368034 0 0 0 
3.592234 2.267846 0.2051768 0 0 0 
3.592234 2.267846 0.1735729 0 0 0 
3.592234 2.267846 0.1419881 0 0 0 
3.592234 2.267846 0.110419 0 0 0 
3.592234 2.267846 0.07886206 0 0 0 
3.592234 2.267846 0.04731383 0 0 0 
3.592234 2.267846 0.01577083 0 0 0 
3.592234 2.267846 -0.01577044 0 0 0 
3.592234 2.267846 -0.04731344 0 0 0 
3.592234 2.267846 -0.07886166 0 0 0 
3.592234 2.267846 -0.1104186 0 0 0 
3.592234 2.267846 -0.1419877 0 0 0 
3.592234 2.267846 -0.1735725 0 0 0 
3.592234 2.267846 -0.2051764 0 0 0 
3.592234 2.267846 -0.236803 0 0 0 
3.592234 2.267846 -0.2684558 0 0 0 
3.592234 2.267846 -0.3001384 0 0 0 
3.592234 2.267846 -0.3318541 0 0 0 
3.592234 2.267846 -0.3636067 0 0 0 
3.592234 2.267846 -0.3953997 0 0 0 
3.592234 2.267846 -0.4272366 0 0 0 
3.592234 2.267846 -0.4591211 0 0 0 
3.592234 2.267846 -0.4910569 0 0 0 
3.592234 2.267846 -0.5230475 0 0 0 
3.592234 2.267846 -0.5550966 0 0 0 
3.592234 2.267846 -0.587208 0 0 0 
3.592234 2.267846 -0.6193854 0 0 0 
3.592234 2.267846 -0.6516325 0 0 0 
3.592234 2.267846 -0.6839532 0 0 0 
3.592234 2.267846 -0.7163512 0 0 0 
3.592234 2.267846 -0.7488304 0 0 0 
3.592234 2.267846 -0.7813947 0 0 0 
3.592234 2.267846 -0.8140482 0 0 0 
3.592234 2.267846 -0.8467946 0 0 0 
3.592234 2.267846 -0.8796381 0 0 0 
3.592234 2.267846 -0.9125828 0 0 0 
3.592234 2.267846 -0.9456328 0 0 0 
3.592234 2.267846 -0.9787921 0 0 0 
3.596535 2.262668 1.012275 0 0 0 
3.596535 2.262668 0.9789948 0 0 0 
3.596535 2.262668 0.9458286 0 0 0 
3.596535 2.262668 0.9127719 0 0 0 
3.596535 2.262668 0.8798204 0 0 0 
3.596535 2.262668 0.8469701 0 0 0 
3.596535 2.262668 0.8142168 0 0 0 
3.596535 2.262668 0.7815567 0 0 0 
3.596535 2.262668 0.7489856 0 0 0 
3.596535 2.262668 0.7164996 0 0 0 
3.596535 2.262668 0.6840949 0 0 0 
3.596535 2.262668 0.6517676 0 0 0 
3.596535 2.262668 0.6195138 0 0 0 
3.596535 2.262668 0.5873298 0 0 0 
3.596535 2.262668 0.5552118 0 0 0 
3.596535 2.262668 0.523156 0 0 0 
3.596535 2.262668 0.4911588 0 0 0 
3.596535 2.262668 0.4592165 0 0 0 
3.596535 2.262668 0.4273254 0 0 0 
3.596535 2.262668 0.3954819 0 0 0 
3.596535 2.262668 0.3636823 0 0 0 
3.596535 2.262668 0.3319232 0 0 0 
3.596535 2.262668 0.3002008 0 0 0 
3.596535 2.262668 0.2685117 0 0 0 
3.596535 2.262668 0.2368524 0 0 0 
3.596535 2.262668 0.2052192 0 0 0 
3.596535 2.262668 0.1736087 0 0 0 
3.596535 2.262668 0.1420174 0 0 0 
3.596535 2.262668 0.1104418 0 0 0 
3.596535 2.262668 0.07887837 0 0 0 
3.596535 2.262668 0.04732361 0 0 0 
3.596535 2.262668 0.01577409 0 0 0 
3.596535 2.262668 -0.0157737 0 0 0 
3.596535 2.262668 -0.04732323 0 0 0 
3.596535 2.262668 -0.07887796 0 0 0 
3.596535 2.262668 -0.1104414 0 0 0 
3.596535 2.262668 -0.1420171 0 0 0 
3.596535 2.262668 -0.1736083 0 0 0 
3.596535 2.262668 -0.2052188 0 0 0 
3.596535 2.262668 -0.236852 0 0 0 
3.596535 2.262668 -0.2685113 0 0 0 
3.596535 2.262668 -0.3002004 0 0 0 
3.596535 2.262668 -0.3319227 0 0 0 
3.596535 2.262668 -0.3636819 0 0 0 
3.596535 2.262668 -0.3954814 0 0 0 
3.596535 2.262668 -0.427325 0 0 0 
3.596535 2.262668 -0.4592161 0 0 0 
3.596535 2.262668 -0.4911584 0 0 0 
3.596535 2.262668 -0.5231556 0 0 0 
3.596535 2.262668 -0.5552114 0 0 0 
